# .PCD v0.7 - Point Cloud Data file format
VERSION 0.7
FIELDS x y z
SIZE 4 4 4
TYPE F F F
COUNT 1 1 1
WIDTH 1537
HEIGHT 1
VIEWPOINT 0 0 0 1 0 0 0
POINTS 1537
DATA ascii
-34.989548 20.168932 15.783455
-33.506535 20.073488 15.908932
-15.636488 19.856108 15.495638
-12.924236 19.780741 15.646753
-12.472117 19.936514 15.646864
-10.673407 20.18335 15.89677
-6.6474447 20.039412 15.640787
-6.1997437 19.8554 15.644863
-3.8378696 19.88126 15.788427
-59.70031 20.375145 15.778111
-58.318321 20.503302 15.81061
-54.898495 20.419664 15.528461
-53.960518 20.388113 15.879904
-48.696255 20.558128 15.738426
-48.272034 20.615959 15.500481
-47.819477 20.378056 15.609678
-34.270737 20.310537 15.536077
-12.044804 20.457857 15.575323
-7.549715 20.511824 15.736313
-7.095798 20.360746 15.570454
-3.8792512 20.50318 15.715832
-53.842884 20.996029 15.692911
-53.33844 20.752382 15.762194
-52.911633 21.028605 15.684935
-52.151802 20.985973 15.635918
-50.759972 20.892736 15.834894
-49.858849 21.060244 15.703796
-49.209724 20.645626 15.626444
-42.150452 20.712442 15.835686
-41.692688 20.712442 15.835686
-11.587391 20.753801 15.717876
-11.134315 20.933495 15.830044
-8.4264812 20.719341 15.83169
-7.9876556 20.771673 15.505251
-3.8728423 21.024166 15.703857
-3.2496259 20.994808 15.897188
-50.354889 21.347549 15.4821
-49.442898 21.18074 15.689486
-48.858608 21.426022 15.594744
-48.354954 21.146996 15.62528
-10.683241 21.373804 15.593693
-9.8365116 21.216297 15.79401
-9.3427258 21.248499 15.710581
-2.0939565 21.094242 15.861897
-1.6491445 21.094564 15.888987
-48.217968 21.590939 15.487385
-11.138588 21.514694 15.547014
-3.6295285 21.542618 15.564653
-2.7921929 21.528746 15.644865
-2.2075276 21.540512 15.711798
-1.733357 21.550327 15.538832
-1.1072882 21.584404 15.513411
-0.28234416 21.530767 15.754831
0.21901172 21.88158 15.488916
-32.276123 22.312815 15.553497
-37.635284 22.694599 15.704563
-32.718628 22.660297 15.492228
-37.150345 22.965029 15.4874
-36.707844 22.964851 15.485962
-36.250069 22.950289 15.489578
-35.807564 22.950111 15.48814
-33.10675 22.934652 15.484461
-32.661812 22.866215 15.556719
-34.018646 23.533669 15.79381
-33.554165 23.287477 15.89188
-34.920017 23.853191 15.616438
-34.462254 23.85376 15.61466
-36.066296 24.746029 15.496967
1.1249933 -44.929951 15.973934
1.0259522 -44.45813 16.269245
0.11393077 -43.905895 15.984999
-1.675202 -43.522488 15.944384
-0.89720953 -43.630329 15.935688
-0.32407382 -43.6488 16.012474
-3.6346068 -43.018089 15.921438
-3.0122221 -43.038509 16.14407
-2.3793714 -43.428295 16.187107
-4.5555816 -42.927151 15.953802
-4.0819678 -42.963531 16.009392
-5.6974368 -42.325623 16.152277
-4.5810485 -42.38105 15.990362
-3.8826544 -42.330814 15.996655
-6.5709286 -41.531498 16.022135
-7.2769613 -41.026619 16.325304
-8.6768475 -39.596619 15.997458
-8.2370739 -39.984512 16.047253
-9.1245108 -39.358418 16.256153
-9.5916615 -38.693291 16.139519
-11.066072 -37.752518 16.298164
-11.634283 -37.294781 16.089645
-11.989608 -36.966518 16.06926
-13.371206 -36.206608 16.152079
-13.771729 -35.598446 16.328438
-66.143166 -34.48811 15.943716
-65.385422 -34.503593 16.010511
-64.731575 -34.15052 15.9615
-13.815557 -34.005692 15.937885
-67.931145 -33.615917 15.987364
-64.43 -33.708664 16.033772
-14.649198 -33.777332 16.252464
-68.638817 -33.172955 15.995243
-14.661514 -33.327068 16.035345
-69.241417 -32.738945 16.084803
-63.794994 -33.031498 16.053698
-61.816933 -32.807995 16.001196
-15.575475 -32.781921 16.005116
-69.816048 -32.396103 16.216164
-63.235184 -32.488316 16.054743
-62.665501 -32.348167 16.196005
-62.093933 -32.346703 16.329926
-16.035618 -32.281742 16.046616
-72.685036 -31.870546 16.111217
-71.849236 -31.830494 16.056242
-70.770973 -32.017414 16.172102
-61.361027 -32.163383 16.020754
-60.914803 -32.124279 15.963358
-60.067665 -32.004414 15.959633
-16.484842 -31.923958 16.04948
-73.43541 -31.615683 16.270117
-71.198082 -31.421913 16.218668
-16.938787 -31.733107 16.306492
-59.218132 -30.992386 16.205549
-58.170975 -30.977457 16.125912
-57.564743 -30.989977 16.057474
-56.132416 -31.063749 16.147957
-55.405117 -31.002155 16.015053
-54.060291 -31.33386 15.948395
-74.719162 -30.913601 16.034676
-58.772861 -30.913347 16.203747
-56.915604 -30.959431 16.036318
-54.892666 -30.813478 15.966801
-54.273315 -30.919031 16.081388
-17.408463 -30.893824 16.022594
-50.888512 -29.702488 16.098837
-52.91404 -29.438421 16.123255
-51.944481 -29.395926 15.980299
-51.495792 -29.631908 16.000576
-50.149612 -29.66382 16.187117
-49.684788 -29.546972 15.986479
-49.229328 -29.553911 15.91386
-48.807938 -29.296194 16.13806
-52.490513 -28.870266 16.118141
-76.666847 -28.583416 15.988928
-47.910522 -28.330084 16.025616
-78.187416 -27.93112 16.303675
-77.73085 -27.921165 16.290253
-19.26527 -27.88092 15.910416
-18.814041 -27.726009 15.921583
-79.953751 -27.205952 16.006853
-78.995857 -27.232979 16.248686
-78.478836 -27.235134 15.976795
-46.594097 -27.519615 16.20215
-37.722771 -25.537043 16.207674
-36.708843 -25.38595 16.319098
-35.435364 -25.760439 16.278429
-80.607903 -24.975853 16.154421
-40.988262 -25.083607 16.240791
-40.451149 -25.05172 16.19451
-38.595882 -25.113096 16.339108
-37.77124 -25.055361 16.149565
-37.346119 -25.093628 16.129215
-36.331833 -24.94375 16.21335
-35.114033 -24.984619 16.226208
-40.121998 -24.649229 16.119646
-35.971478 -24.529869 15.990032
-34.596123 -24.848949 16.195465
-34.131443 -24.711571 16.33198
-33.274677 -24.698778 16.080194
-39.617737 -24.456247 16.145042
-38.897125 -24.354572 16.143845
-33.276836 -24.264914 16.328815
-80.992531 -23.816299 16.283632
-33.711063 -23.463905 16.268703
-33.268871 -23.455048 16.253874
-83.379471 -21.96331 16.255106
-82.373985 -21.589006 16.264565
-83.028015 -21.467592 16.167534
-24.796316 -19.328844 16.08942
-24.359194 -19.019234 16.039577
-25.79949 -18.771259 16.056335
-26.189638 -18.35704 15.934273
-25.723892 -18.08964 16.19817
-26.668976 -17.823275 16.295399
-26.166878 -17.745752 16.156252
-27.116438 -17.352726 16.013338
-28.012463 -17.037695 16.004215
-27.558653 -17.106569 16.159609
-27.106239 -16.959354 16.264971
-26.642912 -17.128511 16.302429
-28.473679 -16.623655 15.978888
-84.346336 -15.835541 16.108854
-83.798897 -15.681301 16.150803
-85.124092 -13.939912 16.243584
-85.367401 -13.165099 16.250156
-84.953026 -13.254698 16.199543
-82.304596 2.6853616 16.108522
-81.779198 3.017462 16.267033
-80.704994 3.2531149 16.177814
-80.194962 3.4444454 16.335083
-81.145851 4.0568433 15.935415
-80.624863 3.9174397 16.030865
-80.423325 4.5332675 16.299227
-80.605461 5.436173 16.219917
-80.609978 5.9277306 16.311577
-80.259361 5.8755198 16.220188
-80.221802 6.4773607 16.323603
-79.818245 6.7197881 16.319853
-27.660679 6.6893487 16.08593
-79.628525 7.2345185 16.103825
-78.730103 7.593483 15.923531
-79.325356 7.8708525 16.125557
-78.650627 8.0032415 16.106539
-26.78616 8.0083113 16.151941
-78.276634 8.2293816 16.233538
-26.283157 8.2812777 16.259457
-78.779671 8.6434774 16.232803
-78.19313 9.280509 16.209009
-77.767166 9.4389963 16.259186
-25.869179 9.3344545 16.231443
-78.136856 9.7126932 16.310579
-76.768471 10.018318 15.962734
-76.313179 10.447709 16.310234
-75.914764 10.905731 15.967838
-24.980286 10.839864 15.969942
-75.410889 11.195719 15.963213
-74.928879 11.313169 16.309254
-24.535513 11.348419 15.952103
-74.912758 11.842317 16.291372
-74.466438 11.788082 16.176174
-74.577713 12.336983 16.189566
-23.181091 12.058075 16.29413
-73.829224 12.477781 16.084108
-73.127708 12.669028 16.309855
-23.174252 12.783336 15.94417
-73.531761 13.258114 15.942583
-72.597313 13.290067 16.138985
-72.14209 13.293549 16.186853
-71.693222 13.296318 16.314882
-69.220543 13.022588 16.200811
-22.720772 12.953504 16.230652
-70.485481 13.689269 16.067505
-69.852737 13.640444 16.240084
-69.322365 13.595792 16.276968
-22.814024 13.347812 16.123711
-22.269659 13.545717 16.273312
-21.557381 14.066909 16.310604
-69.035706 14.371551 16.070454
-21.984175 14.225565 15.977322
-21.25495 14.51177 16.296726
-69.834473 14.96947 16.023645
-69.17334 14.924565 16.234953
-20.657263 14.686723 16.268391
-20.181799 14.980446 16.091179
-69.525169 15.368073 16.173546
-19.166071 15.471881 16.291538
-68.806175 15.55726 16.174608
-67.842743 16.172312 16.081205
-67.30468 15.946984 16.253813
-19.445053 15.923764 15.929745
-67.172913 16.446638 15.983337
-66.784874 16.668524 16.258553
-18.741814 16.58256 16.166912
-67.493652 16.863907 15.921917
-66.262924 17.03545 16.103552
-18.321163 17.102814 16.218071
-17.74374 17.668774 15.93721
-16.962046 17.803894 16.274834
-65.101387 18.433941 15.99317
-54.790466 18.426449 16.238768
-54.349854 18.357895 16.250856
-53.894012 18.289312 16.262949
-53.440063 18.144693 16.288448
-31.660957 18.316746 16.09374
-16.510733 18.348627 16.021942
-16.035473 18.21068 16.087694
-64.33831 18.651937 15.991352
-62.975838 18.577919 16.274462
-59.968307 18.902134 16.275492
-58.142212 18.610912 16.254168
-57.425781 18.850832 15.97966
-56.781567 18.908169 16.128965
-55.903225 18.882607 16.130363
-46.57267 18.675201 16.085293
-46.105743 18.609734 15.951838
-45.611385 18.741035 15.968557
-44.986965 18.640461 15.95286
-44.539944 18.648611 15.968527
-44.007103 18.520288 16.291971
-15.636533 18.598675 16.236746
-15.168509 18.674025 16.292345
-14.708377 18.888355 16.206898
-14.265237 18.735573 16.29096
-13.808159 18.614861 16.092667
-13.346021 18.552 16.17931
-12.926279 18.718182 16.131254
-3.4193966 18.527739 16.30731
-64.80555 18.968887 15.937567
-62.875389 19.18128 15.998224
-60.553719 19.328461 16.033419
-59.203163 18.952368 16.182467
-57.909451 19.159042 15.977112
-57.427723 19.343908 15.984066
-54.87286 19.005352 16.114725
-47.087543 19.152905 16.049911
-42.865898 18.95393 15.963636
-42.381702 19.316902 16.067896
-41.467434 19.135225 16.100534
-41.02943 19.009516 15.973265
-40.587997 19.013298 15.917786
-40.128696 19.017591 15.972929
-39.694229 19.247604 16.021328
-16.06476 18.933861 15.942947
-12.473029 19.110552 16.326368
-12.017667 19.337732 16.20903
-11.5876 19.316635 15.958622
-5.194458 19.174713 16.319065
-62.238991 19.441277 16.026159
-61.408352 19.417313 16.06282
-60.006828 19.408615 15.925043
-59.420723 19.368427 15.999107
-55.031441 19.47513 16.132725
-53.978817 19.727282 15.924549
-48.910095 19.713148 16.011889
-48.380325 19.671135 16.107059
-48.009827 19.713148 16.011889
-47.428978 19.613186 16.160297
-47.109558 19.713148 16.011889
-46.651794 19.713148 16.011889
-44.408752 19.69812 16.014538
-39.250534 19.388859 16.182886
-38.611202 19.552563 16.180925
-38.035717 19.534166 16.182655
-37.586746 19.421171 16.086123
-37.034393 19.545483 16.19014
-36.587624 19.558331 16.151899
-35.466167 19.520037 16.142361
-33.015522 19.723024 15.991005
-32.53558 19.428473 16.153908
-12.458359 19.582256 16.030073
-5.7388215 19.421305 16.115765
-3.2143369 19.351873 15.954493
-59.748878 19.938875 15.928223
-55.376194 19.945492 15.94158
-54.700413 19.870392 16.26656
-49.250561 20.097614 16.301317
-48.805553 20.035723 15.967882
-34.467182 19.966614 16.067854
-12.008966 19.996729 15.929834
-7.518784 20.113134 16.201668
-7.0855675 20.101101 16.037992
-3.2687852 20.056326 16.233553
-60.593918 20.416685 15.929447
-60.136227 20.418312 15.919506
-50.123013 20.527388 15.927361
-49.650375 20.415688 16.14238
-34.163433 20.222315 16.201756
-11.581526 20.267967 15.996092
-11.12975 20.334131 16.071686
-7.9862056 20.514627 15.977848
-52.519073 20.719931 16.136215
-51.806904 20.661932 16.198914
-41.692688 20.799267 16.328089
-41.250183 20.799267 16.328089
-40.807678 20.799267 16.328089
-40.348969 20.867819 16.316002
-39.90741 20.799267 16.328089
-10.67406 20.807467 16.028496
-10.209327 20.768742 16.158291
-8.8809929 20.788374 15.930002
-3.4142866 20.716583 16.311707
-2.7352126 20.805317 16.338644
-1.140528 20.807455 16.308868
-0.75752437 21.049215 15.91786
-0.31392652 20.941463 16.139578
-1.2140009 21.134781 15.945068
-35.826324 23.075045 15.946795
-35.37619 23.074953 15.94605
-34.933685 23.074398 15.945414
-34.475922 23.074306 15.944668
-34.033417 23.074219 15.943949
-33.618896 23.100256 15.922363
-33.161133 23.08523 15.925013
-32.718628 23.017609 15.936936
-32.666687 23.015448 15.97083
-32.210808 22.792782 15.92207
-33.800808 23.267712 16.312387
-33.117172 23.229019 15.978647
1.1470276 -45.937263 16.444773
0.78920835 -45.465054 16.551462
0.60765356 -44.792233 16.4498
1.0316584 -44.895496 16.480375
0.5160988 -44.330025 16.507717
0.29419112 -43.972759 16.426413
-1.2940626 -43.565434 16.539299
-0.70415986 -43.66618 16.522903
-0.25897485 -43.797623 16.493572
-3.1105936 -43.21312 16.467812
-2.6230793 -43.274979 16.730459
-1.9362819 -43.255608 16.556826
-4.7990031 -42.623894 16.634489
-3.8619738 -42.949184 16.619469
-6.0844193 -41.955578 16.386538
-5.3243351 -42.046944 16.547712
-7.5778241 -41.445511 16.711643
-7.1193218 -41.409672 16.72731
-6.6588621 -41.676064 16.572399
-6.1179166 -41.393608 16.759001
-7.6573424 -40.934231 16.700167
-7.7476425 -40.439758 16.38632
-8.6812553 -40.040173 16.412189
-8.206275 -40.118778 16.46719
-9.1037626 -39.611141 16.709656
-10.514266 -38.283207 16.634413
-10.028146 -38.687134 16.62632
-10.611273 -37.95005 16.353231
-11.460769 -37.303398 16.612263
-12.306468 -36.770676 16.340836
-11.917249 -36.938625 16.754295
-12.823314 -36.490685 16.355671
-13.76137 -35.994999 16.547407
-13.295156 -36.07098 16.71748
-14.20013 -35.366856 16.512247
-66.609024 -34.542812 16.46023
-14.638023 -34.412506 16.414288
-66.035789 -34.311974 16.468449
-65.369568 -34.192844 16.566223
-67.716232 -33.545368 16.489025
-64.71447 -33.796574 16.586527
-68.197304 -33.051178 16.36058
-15.560957 -32.873322 16.394236
-15.277015 -32.918606 16.764322
-63.79821 -32.666046 16.592026
-63.357498 -32.515541 16.539001
-60.921345 -32.287811 16.416639
-16.012627 -32.513489 16.52672
-70.199211 -31.914024 16.709351
-69.301094 -32.139629 16.491972
-63.465225 -32.034866 16.553991
-61.505413 -32.169334 16.591496
-60.247303 -32.001625 16.694967
-16.468338 -32.015553 16.601269
-73.883904 -31.412907 16.340956
-71.175652 -31.42498 16.74124
-73.128822 -31.350641 16.446445
-72.214012 -31.361046 16.432018
-71.621887 -31.377695 16.352564
-59.233875 -31.081541 16.675163
-57.673355 -31.005102 16.531084
-56.871155 -30.979006 16.527397
-55.617496 -31.045591 16.436016
-54.740089 -30.975761 16.434504
-17.387365 -31.213984 16.621027
-74.284492 -30.958494 16.469498
-72.435448 -30.943743 16.689255
-58.807499 -30.693352 16.726112
-58.340809 -30.921944 16.660397
-53.810059 -30.543055 16.594782
-17.837906 -30.706739 16.6987
-53.379623 -29.978424 16.641546
-50.515575 -29.837976 16.613842
-75.636925 -29.301365 16.595411
-52.821823 -29.636293 16.548439
-51.274281 -29.566116 16.407404
-50.658722 -29.286545 16.54859
-52.399418 -29.209553 16.509884
-51.828522 -28.889547 16.656788
-49.354382 -29.099066 16.470148
-76.191681 -28.604801 16.419376
-48.917374 -28.798393 16.739285
-48.31126 -28.602613 16.686619
-76.716782 -28.197392 16.463644
-47.899303 -28.248257 16.516953
-77.166656 -27.808285 16.399099
-47.485279 -27.602993 16.442305
-19.679539 -27.781639 16.552534
-19.259176 -27.821062 16.527895
-79.453629 -27.121655 16.559422
-78.052017 -27.14732 16.346985
-77.649956 -27.458797 16.407978
-19.941807 -27.317665 16.68576
-79.862152 -26.954145 16.640493
-79.068642 -26.792616 16.745584
-78.524239 -27.029875 16.438622
-78.157524 -26.916351 16.723757
-39.490051 -25.912167 16.621912
-36.210381 -25.860594 16.531954
-41.359314 -25.387041 16.583771
-39.829094 -25.376387 16.766703
-39.040943 -25.725159 16.433735
-37.305965 -25.766619 16.393728
-42.609253 -25.363232 16.757229
-41.72551 -25.148745 16.47604
-41.025112 -24.946363 16.589384
-40.609829 -25.315186 16.647665
-40.054195 -25.064875 16.377659
-39.505928 -24.997236 16.372475
-38.048611 -25.242609 16.644812
-37.231255 -25.350178 16.571806
-42.418098 -24.723555 16.688025
-36.886559 -24.871622 16.418867
-80.953056 -24.351099 16.375694
-34.176598 -24.284533 16.355272
-33.695408 -24.463247 16.348125
-80.983238 -23.55508 16.709915
-82.736702 -21.299564 16.680136
-82.104263 -21.214979 16.742455
-24.793821 -18.809128 16.384333
-25.773699 -18.152538 16.7076
-25.303587 -18.459389 16.345205
-26.223967 -17.911467 16.60899
-25.707142 -17.675909 16.630558
-25.26058 -18.059679 16.67495
-28.458597 -16.425583 16.69136
-28.005459 -16.701307 16.5338
-27.556814 -16.504784 16.497993
-27.094929 -16.542273 16.48897
-31.186508 -16.100927 16.459932
-83.836975 -15.269993 16.432753
-83.346954 -15.213569 16.705185
-29.833582 -15.319506 16.756445
-84.452789 -13.652733 16.605841
-84.39994 -13.036911 16.506241
-84.945282 -12.876086 16.64262
-85.932106 -10.109166 16.663834
-83.184181 -0.23158447 16.480194
-83.188675 0.25997278 16.571854
-83.193161 0.75153399 16.663513
-82.208275 2.6461215 16.589085
-81.772392 2.8916717 16.747437
-81.239128 2.9849768 16.648148
-80.121323 3.7902586 16.712435
-79.687355 3.9673102 16.593925
-80.083885 4.3419156 16.657829
-80.031578 4.8335714 16.36471
-79.808502 5.6930861 16.511065
-79.761406 6.2107377 16.565943
-79.281708 6.3001862 16.653801
-79.349251 6.7901673 16.508774
-78.980026 6.7464552 16.756876
-79.296082 7.1493111 16.704088
-78.768265 7.2992182 16.685955
-78.565941 7.9084511 16.542259
-26.291979 7.893856 16.706881
-26.310846 8.3743191 16.686329
-25.864738 8.5851898 16.701157
-77.81926 8.9058685 16.429365
-77.357285 8.7143087 16.647612
-77.233643 9.3415117 16.742994
-77.230164 9.6435318 16.359892
-25.45606 9.7488747 16.367168
-76.755669 9.9188032 16.709885
-25.004225 10.216424 16.44833
-75.866325 10.646066 16.545734
-75.255707 10.870662 16.632204
-24.458551 10.96179 16.524902
-23.793266 11.446166 16.487391
-23.170776 11.428675 16.645945
-74.489105 11.782287 16.76545
-22.745087 12.546765 16.510412
-73.013626 13.044862 16.439909
-72.368828 13.089268 16.591904
-68.695091 13.190698 16.758141
-68.812805 13.720667 16.373203
-21.720343 13.409668 16.674618
-20.987183 14.078295 16.463717
-20.451023 14.173229 16.616829
-20.014713 13.967734 16.382114
-68.36676 14.219305 16.509632
-68.657028 14.719403 16.392765
-67.530029 15.000341 16.466293
-19.63599 14.970916 16.515865
-19.160442 15.026367 16.613735
-68.062553 15.462616 16.435747
-67.630539 15.438713 16.66671
-66.722237 15.690413 16.72374
-18.718058 15.518495 16.706886
-18.728514 15.936393 16.432917
-65.699875 16.545679 16.603857
-17.864225 17.022318 16.585859
-17.404236 17.188753 16.620012
-55.143974 17.589117 16.756721
-53.014709 17.519211 16.398739
-16.98324 17.344618 16.61516
-16.518356 17.438023 16.712
-56.989269 17.678251 16.702219
-53.471397 17.848852 16.457989
-53.013813 17.855337 16.445673
-15.607302 17.957605 16.41477
-13.331657 18.015791 16.752279
-64.738289 18.247255 16.362125
-57.35836 18.214914 16.65979
-55.970036 18.082857 16.691757
-55.679241 18.354231 16.687752
-54.783253 18.317696 16.479435
-54.232822 18.13938 16.711306
-45.505585 18.464485 16.4818
-45.048241 18.4498 16.464737
-15.156281 18.313013 16.699522
-14.679997 18.216284 16.722267
-14.240089 18.412075 16.675522
-13.789888 18.364246 16.541061
-12.895334 18.37583 16.520445
-3.0254557 18.173182 16.709894
-2.5151041 18.130234 16.590733
-63.679173 18.619217 16.495659
-62.553909 18.590147 16.753147
-61.712791 18.804285 16.69754
-60.923401 18.878666 16.504749
-60.356209 18.729424 16.577196
-59.495399 18.557913 16.535542
-58.585121 18.604647 16.426731
-57.693253 18.697477 16.392582
-56.546822 18.668148 16.568043
-55.359566 18.90288 16.355473
-54.320068 18.870222 16.452915
-53.760487 18.697115 16.693548
-46.38747 18.710718 16.47636
-45.944481 18.57357 16.539753
-44.60363 18.509119 16.49465
-43.260864 18.506998 16.474316
-40.132648 18.906626 16.620108
-32.10817 18.70141 16.421658
-12.447866 18.616768 16.654255
-3.8686817 18.602619 16.406412
-2.5854743 18.670055 16.419523
-62.272758 18.996325 16.432529
-53.905949 19.31003 16.513947
-53.144623 18.960829 16.760536
-47.785599 19.339354 16.412306
-47.315601 19.093267 16.607243
-42.86187 18.99197 16.489447
-42.395931 19.026125 16.484539
-40.575451 19.181786 16.744062
-39.679718 19.016144 16.648857
-39.236675 19.031284 16.633829
-38.792225 19.052006 16.483595
-38.3414 19.02618 16.360468
-37.887596 19.267548 16.674774
-36.597157 19.262821 16.672142
-32.595051 18.972895 16.5172
-11.998166 18.999378 16.705944
-5.6634645 19.182766 16.759626
-4.4027424 18.950634 16.535734
-58.445698 19.415842 16.363905
-53.281551 19.558306 16.499533
-46.656994 19.767723 16.655277
-46.212555 19.753164 16.658937
-45.754795 19.752981 16.657448
-45.31229 19.752804 16.65601
-44.854527 19.752621 16.65452
-41.933472 19.578608 16.356083
-36.014214 19.367287 16.738226
-34.790138 19.409761 16.624687
-34.026871 19.540693 16.477888
-33.320835 19.472973 16.60928
-11.56181 19.472387 16.570208
-11.112929 19.562677 16.69467
-6.3543983 19.535973 16.606287
-2.7848675 19.570116 16.452106
-2.1802764 19.596245 16.560558
-61.567581 19.843504 16.564459
-61.123123 19.842236 16.559456
-53.970676 19.88558 16.422997
-48.78632 19.880646 16.39673
-47.552063 19.799973 16.504292
-47.109558 19.799973 16.504292
-46.651794 19.799973 16.504292
-46.20929 19.799973 16.504292
-45.765839 19.799973 16.504292
-45.309021 19.784945 16.506941
-44.86557 19.784945 16.506941
-44.408752 19.784945 16.506941
-43.965302 19.784945 16.506941
-43.508484 19.784945 16.506941
-43.065033 19.784945 16.506941
-11.113111 19.864016 16.380083
-10.661233 20.141441 16.519577
-10.213069 20.133064 16.677774
-7.9719539 20.115963 16.531084
-2.5849109 20.143776 16.564148
-52.889057 20.38171 16.345324
-50.951321 20.448177 16.636896
-50.412037 20.32844 16.519104
-9.3132782 20.48698 16.671814
-8.8637314 20.400431 16.663439
-2.0801506 20.637743 16.75403
-49.916737 20.845213 16.691668
-9.7625189 20.677675 16.554279
-1.6690347 20.69174 16.490759
-0.70896214 20.709654 16.449148
0.069346257 20.81679 16.436796
-37.655792 21.4881 16.714344
-34.503906 23.118528 16.426855
-34.03875 23.1416 16.501434
-33.588615 23.141457 16.500786
-33.161133 23.104433 16.42934
-32.718628 23.104433 16.42934
-32.276123 23.1035 16.429504
-32.219681 23.148842 16.432014
-34.446339 23.284258 16.426048
-33.546055 23.26952 16.428228
-33.106037 23.300655 16.572344
-32.665249 23.224199 16.420801
-0.24987197 -45.941681 16.940538
0.23538035 -45.898094 16.946777
0.87814426 -45.762249 17.059647
-0.20107394 -45.231407 16.799026
1.2172412 -45.304649 16.881111
0.14107865 -44.810574 17.167923
0.66833842 -44.802883 17.003529
0.66279411 -44.306629 16.942446
-0.50740987 -43.973061 16.912189
-3.0158448 -43.218319 17.188786
-2.0553286 -43.200825 17.131569
-1.0300903 -43.334904 16.935856
-5.8159871 -42.626171 17.049356
-5.2495575 -42.587452 16.956154
-6.7180099 -41.725986 17.115479
-5.6747184 -41.946369 17.036839
-6.0710983 -41.660358 17.13368
-8.4077721 -40.612194 17.015965
-9.1932573 -39.958031 17.056112
-9.5589113 -39.239536 16.78488
-11.371123 -37.569626 17.086292
-10.927329 -37.773312 16.991093
-12.816245 -36.199017 16.934311
-12.372672 -36.539818 17.062622
-13.728765 -35.807087 16.967226
-14.280519 -35.311405 17.128439
-14.608136 -34.844898 16.792324
-66.578072 -34.659328 16.92123
-15.051312 -34.421886 17.168339
-65.980194 -34.193886 17.071968
-65.55526 -34.192394 17.122337
-65.10112 -33.719807 17.093666
-67.986916 -33.247318 16.928045
-64.707664 -33.273781 17.167616
-68.770386 -32.791252 16.839508
-69.703072 -32.399014 16.79299
-63.584267 -32.305271 17.005383
-62.751957 -32.379982 16.823759
-61.664383 -32.357208 16.959894
-15.994648 -32.617245 16.94429
-62.128559 -32.199654 16.898947
-60.868164 -32.194252 16.879019
-16.461645 -32.100349 17.173794
-69.581902 -31.740311 16.949003
-69.206123 -31.500589 16.971027
-61.25631 -31.497629 17.014984
-59.793255 -31.411577 16.816858
-16.905529 -31.67828 17.045511
-71.987 -31.148605 17.154564
-71.494591 -30.985394 17.018215
-59.27932 -31.132072 17.107595
-57.816483 -31.129232 17.002531
-56.36787 -31.154455 16.898676
-55.738785 -31.106243 16.872097
-55.263329 -31.086226 16.877373
-58.752014 -30.865328 17.10413
-58.297085 -30.92384 17.080887
-56.880821 -30.946846 17.083988
-54.560314 -30.923107 17.061811
-17.812918 -30.87159 17.120272
-74.739426 -30.156799 16.870241
-50.946163 -29.861288 16.888418
-51.93256 -29.310743 17.000265
-51.468056 -29.435575 16.990919
-51.085499 -29.415791 17.056286
-50.063015 -29.476131 17.028492
-75.833115 -28.833775 16.893463
-49.671295 -28.856794 16.862608
-52.194469 -28.621534 17.015211
-49.277645 -28.401381 16.856573
-48.790745 -28.486652 17.028448
-48.299255 -28.414436 17.14975
-76.143616 -28.336977 17.022411
-47.890736 -27.889299 16.925808
-19.249796 -27.84915 16.996216
-77.632599 -27.139189 16.82654
-77.087234 -27.239668 17.123295
-79.458961 -26.406683 17.060097
-78.991837 -26.260584 17.188372
-78.511642 -26.481504 16.956421
-77.617447 -26.654636 17.133734
-41.295845 -26.494656 17.186893
-79.985367 -25.968369 17.072882
-41.907993 -26.017969 16.821253
-39.040936 -26.106239 16.870335
-38.485661 -26.043756 16.905186
-38.018772 -26.009499 16.801353
-37.562588 -25.997875 16.788626
-37.092804 -25.958277 16.811293
-42.59156 -25.652145 17.164953
-42.114388 -25.418077 16.89105
-40.844006 -25.739088 17.193033
-39.225346 -25.47295 16.933363
-38.693737 -25.515841 16.875271
-35.866295 -25.590464 17.085087
-45.772987 -25.22224 16.893335
-41.547581 -25.310345 17.088217
-35.468651 -25.28001 16.882341
-35.444366 -24.820717 17.021044
-34.970222 -24.722052 16.956383
-80.439308 -24.432926 17.103151
-79.99659 -24.374773 17.190746
-80.941231 -23.693176 17.128817
-80.476967 -24.026937 16.98805
-34.171886 -23.384079 16.781466
-33.699848 -23.259834 16.782215
-34.591976 -23.098833 17.181021
-33.719028 -22.909163 17.030777
-82.071228 -21.225824 17.15654
-24.788189 -19.006002 16.806074
-25.265747 -17.809841 17.093323
-26.190701 -17.282043 17.073341
-27.461416 -16.90654 16.907158
-26.822884 -16.840687 16.814596
-83.731178 -16.101044 16.794989
-83.287201 -16.121027 16.77113
-28.02519 -16.11245 16.908445
-27.54031 -16.325125 16.948103
-27.092926 -16.283689 17.10136
-83.121872 -15.74298 17.096033
-28.911819 -15.549085 17.059128
-28.454721 -15.535606 17.121681
-28.014204 -15.570925 16.805429
-27.593943 -15.761039 16.943766
-30.734613 -15.352317 16.791895
-30.277227 -15.342288 16.775379
-29.366879 -15.392735 16.969669
-84.427017 -13.315918 17.076838
-84.452278 -12.714305 17.129854
-83.895142 -12.886618 17.129391
-85.639572 -12.28449 16.800652
-84.814255 -12.459169 16.877996
-82.064667 2.4251697 17.118189
-81.493202 2.7657425 17.151278
-80.127914 3.1334589 17.126383
-80.884789 3.464421 16.80345
-79.694931 3.4889164 16.884615
-79.427635 4.2865572 17.064884
-79.28479 4.7660928 17.126331
-78.867104 4.8588271 16.978741
-79.695389 5.1841707 16.778614
-79.311592 5.6639853 16.927361
-78.838318 7.236135 17.196493
-78.380554 7.236135 17.196493
-77.922791 7.236135 17.196493
-26.284519 7.2627707 17.094641
-78.258904 7.6083403 17.056738
-25.854826 8.0893822 16.971081
-77.678772 8.2005949 16.972181
-77.905197 8.9185972 16.773031
-76.743881 8.7630205 17.183105
-25.434189 9.0027666 16.86895
-24.967123 9.2507925 17.145941
-76.318291 10.036855 17.165981
-24.996597 9.9614115 16.878832
-24.400816 10.276566 16.935553
-76.332115 10.425776 16.777824
-75.858238 10.371539 16.931129
-75.349533 10.482165 17.018972
-23.730183 10.744098 16.93985
-74.5336 10.785808 17.095476
-23.217037 10.896892 17.097128
-22.693535 11.066519 17.135017
-74.03688 11.436664 16.899954
-73.452171 12.008675 16.774691
-73.0009 12.003758 17.051292
-22.74032 11.890475 16.845411
-22.387222 12.396679 16.985128
-72.463249 12.617331 16.89547
-68.030014 12.817182 17.178762
-67.587555 12.815555 17.17267
-21.461874 12.838713 17.147028
-71.833679 13.180755 16.880184
-70.304955 13.299582 16.941397
-68.091492 13.194102 17.081264
-22.103453 12.927957 16.897732
-19.56459 13.287864 17.111023
-69.879074 13.341962 16.970739
-20.832474 13.474174 17.053692
-68.946739 13.798752 17.089743
-67.958939 14.045074 17.049358
-67.517906 14.120111 17.066444
-20.152443 13.831039 17.05479
-19.630579 13.95647 17.181646
-67.798454 14.599926 16.965834
-19.64748 14.438166 16.960939
-19.168335 14.369612 17.123316
-68.215424 14.805694 16.8325
-18.732222 14.988755 17.090559
-66.014412 16.280699 16.888149
-18.265732 16.225382 16.777079
-16.440603 16.30051 17.136797
-66.004936 16.736525 16.95648
-17.817993 16.427469 16.952856
-17.410688 16.577129 16.933609
-65.189354 17.164465 16.852013
-16.951374 16.957888 17.058847
-16.473358 16.884184 16.960037
-57.074524 17.621061 16.888493
-54.026836 17.57679 16.843288
-53.573475 17.61762 16.940617
-53.014709 17.606035 16.891142
-52.667294 17.575851 16.855564
-52.114441 17.606035 16.891142
-51.656677 17.606035 16.891142
-31.697163 17.570007 16.92223
-16.080126 17.452179 16.905613
-15.599055 17.522993 17.027424
-2.1578989 17.60281 17.054834
-58.69162 17.757679 16.914543
-58.417297 17.636087 16.885841
-57.946392 17.748146 16.834572
-57.517029 17.635126 16.886011
-56.210613 17.652681 16.8519
-55.693878 17.686268 16.802147
-54.615681 17.688314 16.92531
-53.233002 17.729143 16.986519
-16.472149 18.038048 16.819935
-15.169359 17.761932 16.959206
-14.237889 17.781429 16.903816
-13.781336 17.948862 16.989626
-12.915168 17.883684 17.018185
-12.44737 17.884521 17.051741
-1.6693028 17.763683 17.160147
-60.464359 18.122049 16.815214
-59.816986 18.083059 16.830362
-59.208267 18.119583 16.831213
-56.802383 18.104502 16.787825
-53.641464 18.144058 16.910311
-45.037743 18.397957 17.037176
-43.707031 18.482784 17.074718
-32.085369 18.228893 17.087851
-11.995236 18.474583 16.992491
-4.0054097 18.489769 16.898191
-3.5056958 18.277874 16.915033
-2.0555599 18.273121 16.880541
-63.003014 18.576202 17.039427
-61.170166 18.559166 16.952749
-60.506763 18.646137 17.122852
-59.840927 18.530159 16.955467
-54.659519 18.59038 16.994217
-54.073788 18.515015 16.933992
-52.751751 18.661236 16.844906
-52.058521 18.61661 16.817923
-51.635632 18.704742 17.072636
-50.986126 18.734709 16.890802
-46.560692 18.775625 17.037598
-45.491844 18.500181 16.88802
-44.596725 18.558638 17.105679
-44.147816 18.53088 17.103285
-43.252872 18.540592 17.023413
-42.81213 18.610857 16.976444
-42.351223 18.857466 17.044201
-33.041302 18.877401 16.874826
-4.8019323 18.794771 16.96842
-2.0866022 18.820671 16.983845
-52.470039 19.144983 16.853022
-41.631889 19.26194 16.775673
-39.231632 19.207497 17.08709
-38.782188 19.269167 16.947783
-37.438896 19.338556 16.821455
-33.443272 19.211723 17.128059
-11.109193 18.922752 17.029409
-52.771702 19.707859 16.804171
-52.310413 19.774454 16.796152
-51.800068 19.552782 17.161602
-48.641994 19.529928 16.840931
-48.217377 19.413845 16.905798
-41.015556 19.373596 16.897465
-40.10268 19.543203 17.191259
-38.325031 19.353792 16.857285
-37.445946 19.626986 17.160006
-37.000389 19.360857 16.8734
-35.574768 19.381222 16.83548
-10.653328 19.476507 16.960209
-7.067646 19.764835 16.834368
-6.6135569 19.352676 17.158955
-49.544567 19.948118 16.789806
-46.20929 19.886797 16.996696
-45.759518 19.903563 17.062656
-45.309856 19.89596 17.063259
-44.859249 19.895868 17.062515
-44.409588 19.895779 17.061796
-43.958984 19.895687 17.06105
-43.501694 19.895596 17.060307
-43.065033 19.871769 16.999346
-42.608215 19.871769 16.999346
-9.7653275 20.01218 17.003792
-9.2963066 19.985865 17.168245
-7.9729915 19.879915 17.142275
-7.5243363 19.805258 16.831726
-2.0531907 20.09054 17.038559
-1.2183993 20.204683 16.928648
-0.78107572 20.039671 17.187376
0.18147904 19.988289 17.157217
-51.928364 20.261967 16.820099
-51.347813 20.301514 16.785971
-8.4254942 20.285027 16.798824
-0.27829802 20.214897 16.964855
-39.90741 20.886091 16.820494
-39.449646 20.886091 16.820494
-39.007141 20.871063 16.823143
-38.562744 20.871063 16.823143
-38.106873 20.871063 16.823143
-35.848572 22.052963 17.122456
-33.161133 23.191257 16.921743
-32.718628 23.191257 16.921743
-32.276123 23.190325 16.921909
-33.113487 23.410591 17.008486
-32.657589 23.423832 16.951611
-32.200298 23.424026 16.949978
-1.0266188 -45.58746 17.509258
0.060833208 -45.746902 17.447369
1.3128836 -45.580166 17.492228
-0.57221675 -45.566097 17.478291
0.66794592 -45.514225 17.428724
-1.0576915 -45.076138 17.29801
0.42131057 -45.085064 17.317385
-0.78185976 -44.321785 17.621578
-0.27579775 -44.323357 17.439236
-1.1621629 -43.885887 17.555834
-1.4498101 -43.463024 17.476517
-0.77018034 -43.807613 17.373943
-4.0146937 -43.163601 17.246174
-3.5298448 -43.203598 17.235363
-2.0355465 -43.395428 17.592772
-1.5128132 -43.08852 17.221003
-5.4383106 -42.823071 17.416176
-4.9887085 -42.623402 17.338749
-4.5624413 -42.649162 17.344118
-6.2146897 -42.20607 17.537123
-5.582417 -41.994427 17.465641
-8.2503386 -40.87492 17.626339
-7.9070148 -41.141911 17.326635
-8.932682 -40.510052 17.414898
-9.9865589 -39.295658 17.601713
-9.700923 -39.506481 17.404755
-10.434691 -38.573784 17.292614
-9.9567051 -38.655811 17.385035
-11.89821 -37.113693 17.220446
-13.716157 -35.817337 17.463156
-13.263504 -35.9072 17.437145
-12.797452 -36.052536 17.383041
-66.554497 -34.851234 17.328564
-14.617319 -34.924549 17.276016
-66.29866 -34.772755 17.607698
-66.829933 -34.203972 17.457432
-66.373291 -34.298779 17.533087
-67.290344 -33.759346 17.250252
-15.509892 -33.915226 17.493418
-67.25351 -33.381027 17.616039
-65.07756 -33.48386 17.578949
-68.302109 -32.958344 17.27611
-67.761871 -32.822197 17.596569
-63.822346 -32.126862 17.510384
-63.241989 -31.9 17.466366
-62.45726 -32.171127 17.478903
-61.122681 -31.857811 17.408236
-60.432667 -32.23077 17.425896
-59.800259 -32.066063 17.387035
-62.594547 -31.744135 17.50783
-62.133644 -31.796865 17.463566
-60.632984 -31.643646 17.306282
-59.811897 -31.597986 17.340546
-73.035942 -31.246899 17.291395
-72.499931 -31.267326 17.205564
-71.507576 -31.031387 17.424969
-71.068283 -31.127718 17.335417
-70.572716 -31.283175 17.263596
-59.28231 -31.233742 17.596699
-58.111134 -30.992899 17.512457
-57.531189 -31.170891 17.584267
-56.955021 -31.219671 17.576969
-56.220791 -31.142233 17.524128
-55.479942 -31.066978 17.462427
-17.790354 -30.998356 17.56805
-17.362238 -31.312639 17.273499
-73.692932 -30.772602 17.416439
-72.360519 -30.849602 17.549446
-71.48278 -30.585089 17.563129
-57.329865 -30.746506 17.226782
-54.828106 -30.798883 17.613352
-74.173538 -30.452011 17.297432
-58.597668 -30.398886 17.424679
-54.068043 -30.276712 17.293301
-74.669853 -29.764042 17.300707
-53.488392 -29.822794 17.246885
-50.498196 -29.806551 17.203259
-51.443298 -29.548635 17.497473
-51.001148 -29.538696 17.481405
-52.772652 -28.932354 17.322634
-52.05172 -28.912283 17.554403
-51.558792 -28.895157 17.347198
-51.111134 -28.942081 17.330999
-50.662247 -29.162809 17.529476
-50.130672 -28.955194 17.418425
-75.687332 -28.462414 17.512991
-49.717541 -28.383896 17.372154
-49.235653 -28.529478 17.306816
-76.251907 -28.077574 17.372814
-48.287266 -28.226263 17.612885
-76.642944 -27.664856 17.344564
-47.894974 -27.513754 17.40247
-47.469845 -27.353642 17.237497
-20.135349 -27.158216 17.342712
-19.667103 -27.469755 17.319523
-77.148972 -26.763311 17.533186
-40.738495 -26.940681 17.476692
-40.296093 -26.930983 17.461016
-39.854053 -26.917604 17.444445
-39.397976 -26.872355 17.426325
-38.954826 -26.897902 17.479025
-38.051075 -26.742119 17.284882
-37.609375 -26.719307 17.264183
-40.434834 -26.397047 17.2859
-39.410889 -26.287367 17.271053
-38.597523 -26.314632 17.265427
-37.89706 -26.24238 17.209658
-77.653648 -26.067877 17.61676
-43.488827 -25.975229 17.588181
-43.031368 -25.951925 17.584845
-42.573864 -25.94108 17.572683
-42.116375 -25.930225 17.560518
-41.526974 -25.907841 17.426579
-37.202084 -25.962652 17.296318
-79.329384 -25.56559 17.421883
-43.051571 -25.544775 17.261002
-39.861511 -25.753815 17.238176
-36.556175 -25.700487 17.21413
-36.301285 -25.627436 17.594521
-43.691219 -25.025017 17.524382
-42.947578 -25.037918 17.350254
-35.877155 -25.143974 17.289047
-79.953079 -24.790947 17.408291
-42.381699 -24.937918 17.237915
-35.473106 -24.547903 17.41398
-34.564503 -23.991556 17.327
-80.527428 -23.45459 17.588209
-34.140736 -23.02844 17.217636
-82.016663 -21.691614 17.451323
-82.472893 -20.803341 17.288189
-25.735163 -17.243025 17.276638
-26.664125 -16.710203 17.34506
-26.177361 -16.7362 17.247589
-27.533022 -15.94568 17.418255
-83.635887 -15.580808 17.255739
-28.010576 -15.691037 17.285753
-82.713928 -15.345057 17.359528
-30.719376 -15.243861 17.279795
-30.268425 -15.107841 17.213873
-29.801846 -15.435775 17.336672
-27.797771 -15.325758 17.242809
-83.331306 -14.972392 17.598806
-82.879387 -14.897473 17.362963
-29.812927 -14.92139 17.345245
-29.360563 -14.835307 17.575586
-82.496033 -14.375915 17.570297
-28.058071 -14.604939 17.620291
-85.014709 -12.759701 17.2768
-83.420486 -12.803407 17.558641
-85.13858 -12.285858 17.352423
-84.03611 -12.418583 17.458277
-84.857681 -11.947644 17.314528
-84.354706 -4.4846268 17.406822
-80.649025 2.9215388 17.339094
-80.405067 3.6196187 17.352577
-79.268127 3.6401017 17.302904
-78.87941 3.7986524 17.27771
-79.689903 3.8949454 17.231894
-78.88018 4.2988377 17.273478
-78.350143 4.1354647 17.616179
-77.917534 4.6467466 17.453575
-78.516609 4.8282919 17.384186
-78.860291 5.2502651 17.362507
-78.369499 5.9031205 17.624926
-78.792648 6.0641713 17.247398
-26.747274 6.0261998 17.566889
-78.261284 6.5003796 17.314676
-26.296715 6.7156215 17.584764
-78.209099 7.1220703 17.414858
-25.83415 6.8873787 17.615088
-25.852163 7.5137758 17.35355
-77.208076 8.4329405 17.290791
-25.418839 8.193346 17.345932
-76.833168 9.29772 17.274668
-76.411354 9.4521656 17.343166
-24.518372 9.4301157 17.418556
-75.790291 9.467967 17.602631
-75.457268 9.9930096 17.52861
-24.027735 9.9244537 17.490751
-23.513121 10.123609 17.468254
-75.876328 10.408457 17.375971
-74.905869 10.437737 17.23077
-74.0905 10.819089 17.244041
-73.636604 10.872455 17.360174
-22.750002 10.775708 17.58651
-74.4618 11.440907 17.203325
-73.117027 11.223121 17.459463
-72.378258 11.481542 17.260468
-71.714081 11.243901 17.486328
-71.326271 11.756143 17.524342
-21.940182 11.868612 17.438429
-72.350266 12.331102 17.26428
-71.860085 12.066877 17.482271
-21.893726 12.446843 17.234018
-71.662117 12.863591 17.31439
-20.724234 12.733113 17.544462
-69.616615 13.26926 17.355005
-68.196777 13.083382 17.605888
-19.991112 13.088071 17.558456
-71.225121 13.376872 17.238075
-67.587112 13.443933 17.226408
-19.182503 13.844825 17.59936
-66.950272 14.381853 17.576803
-18.705507 14.27871 17.54372
-67.614082 14.78471 17.302616
-18.284584 14.89527 17.550995
-67.19651 15.139985 17.382504
-66.738831 15.399261 17.524801
-18.274279 15.412745 17.26841
-66.091415 15.941474 17.22254
-65.351585 16.163996 17.469652
-17.776039 15.94929 17.301218
-17.377281 16.1805 17.341858
-65.660393 16.507883 17.279823
-65.205154 16.753843 17.225891
-16.940077 16.417465 17.406199
-15.998479 16.450989 17.271086
-64.762047 16.943985 17.37072
-63.852711 16.99069 17.517681
-16.492481 16.899261 17.359951
-16.029903 16.951731 17.334549
-15.607166 17.014269 17.248606
-15.146743 17.056925 17.321514
-1.2645884 17.113445 17.601025
-57.448608 17.606907 17.427811
-54.120537 17.513998 17.22444
-14.702107 17.569851 17.20562
-14.240701 17.526209 17.555315
-13.788541 17.578051 17.500473
-12.431957 17.427376 17.458233
-11.978833 17.530504 17.536306
-2.7129936 17.570078 17.375408
-1.6731217 17.3832 17.33684
-63.873325 17.692478 17.572985
-59.453114 17.897993 17.431854
-58.910355 17.777176 17.557224
-56.495853 17.744562 17.438051
-55.777794 17.693565 17.498007
-55.177643 17.682224 17.467587
-53.014709 17.692858 17.383547
-52.574471 17.789909 17.391865
-52.114441 17.692858 17.383547
-51.656677 17.692858 17.383547
-51.214172 17.692858 17.383547
-50.891483 17.853905 17.380064
-12.884681 17.633438 17.310749
-11.992864 18.048658 17.423433
-3.8773856 17.971725 17.607527
-3.4685016 17.740044 17.325024
-63.424496 18.333717 17.625774
-61.605259 18.345133 17.552521
-61.031563 18.364067 17.570383
-60.261787 18.208599 17.411301
-59.800159 18.4345 17.563152
-59.21439 18.445719 17.371252
-58.465515 18.384159 17.293821
-58.007713 18.382658 17.288652
-53.252747 18.437145 17.28619
-50.242851 18.44252 17.253977
-49.028816 18.328564 17.583326
-48.445175 18.188326 17.626659
-32.530342 18.198519 17.566591
-32.080997 18.086205 17.580132
-11.545391 18.481785 17.222931
-4.4569569 18.322865 17.431696
-3.9508479 18.198803 17.262562
-63.422905 18.758526 17.295755
-57.577454 18.574844 17.236633
-50.85701 18.859159 17.622307
-46.989498 18.853209 17.49773
-46.365131 18.551649 17.552519
-45.956532 18.676023 17.278025
-45.486141 18.814039 17.423906
-43.236332 18.77404 17.60553
-42.357056 18.841242 17.528862
-35.19743 18.889696 17.564098
-32.526531 18.793764 17.226168
-11.102241 18.57744 17.456242
-10.651712 18.77564 17.38586
-5.7099767 18.886499 17.37446
-5.146215 18.739519 17.278965
-1.5809191 18.543499 17.403297
-52.279396 19.308201 17.255896
-51.342522 18.924278 17.296719
-50.197212 18.967249 17.579805
-48.935024 19.21472 17.563803
-47.868053 19.125198 17.470318
-45.04287 18.971546 17.253437
-44.148552 19.172607 17.497007
-41.894859 18.928333 17.276251
-41.442932 19.082933 17.352173
-39.674377 19.317314 17.233225
-38.319019 19.315594 17.615131
-37.87616 19.342932 17.628826
-36.979301 19.289761 17.442221
-36.547325 19.349056 17.337467
-36.091896 19.31184 17.300873
-35.448051 19.275629 17.340704
-34.799267 19.215944 17.404478
-33.94215 19.122387 17.259319
-10.195343 19.085724 17.577232
-9.476656 19.34584 17.491945
-6.1380372 18.973568 17.52944
-1.9973394 19.283575 17.220617
-1.5858457 19.043495 17.409012
-51.181458 19.599014 17.268999
-50.644608 19.618919 17.291597
-50.035275 19.675337 17.25103
-49.408215 19.455956 17.27533
-41.094971 19.611071 17.339149
-40.629959 19.608866 17.396587
-10.196756 19.499655 17.224419
-7.499362 19.459667 17.569662
-7.0702519 19.377604 17.273249
-2.0014658 19.763945 17.352919
-0.18609034 19.706535 17.489145
-43.965302 19.958593 17.491749
-43.508484 19.958593 17.491749
-43.065033 19.958593 17.491749
-42.608215 19.958593 17.491749
-42.164764 19.943567 17.494398
-41.707947 19.943567 17.494398
-8.8391714 20.144146 17.252632
-8.5205498 19.910997 17.275167
-1.4938874 20.00152 17.316042
-37.219971 20.957888 17.315548
-34.505798 22.126652 17.617174
-34.063293 22.126652 17.617174
-32.718628 23.27808 17.414146
-32.46611 23.453741 17.409624
-32.198803 23.630526 17.403307
-0.79404879 -45.713593 18.021353
0.83823627 -45.630409 18.045351
-0.22393632 -45.341236 17.939234
0.14849478 -45.369816 17.77
1.4576424 -45.557144 17.877949
-1.9078376 -44.996677 17.841105
-0.82892537 -44.997288 17.943317
-0.2472178 -44.761131 17.728992
0.21822032 -44.672401 17.80402
-3.5054843 -43.068367 17.865334
-2.8455865 -43.11515 17.847538
-2.3349555 -43.159031 17.861246
-5.0589156 -42.831944 17.975691
-4.1556797 -42.986912 17.939405
-6.5088792 -42.447914 17.846123
-5.831625 -42.410477 17.790066
-6.8132162 -41.508347 17.877035
-7.3790059 -41.14698 17.940712
-8.6620159 -40.73122 17.923918
-9.7482014 -40.306217 17.636183
-9.2202234 -40.190418 17.642693
-9.9410686 -39.666996 17.892998
-10.567179 -39.284359 17.906931
-10.871913 -38.820942 17.928118
-11.350206 -38.256241 17.759642
-10.896808 -38.239464 17.668566
-11.80452 -37.361755 17.667267
-12.273591 -36.826187 17.903212
-13.702466 -35.734257 17.933577
-14.173378 -35.346943 17.654573
-14.641454 -35.043819 17.708153
-15.500181 -34.402946 17.950079
-15.042445 -34.739002 17.714727
-65.513206 -33.802876 17.790394
-67.27739 -32.852161 18.002842
-64.214279 -32.267456 18.056105
-63.339859 -31.968176 18.059629
-62.86882 -32.032013 17.896423
-61.898682 -31.923038 17.827124
-61.174183 -31.854885 17.792976
-60.248852 -31.933725 17.891563
-73.33786 -31.328651 17.86314
-70.885872 -31.029535 17.810122
-70.037697 -31.174698 17.66843
-69.428162 -31.203587 17.722618
-58.763603 -30.988253 17.691805
-55.13686 -31.257736 18.0079
-17.771082 -31.202374 18.0296
-73.111404 -30.723864 17.723469
-72.017883 -30.550047 17.641682
-58.716724 -30.695171 18.008827
-57.122379 -30.759165 17.814621
-56.478836 -30.765741 17.761833
-55.947433 -30.689226 17.76506
-55.306076 -30.671883 17.77039
-54.149506 -30.706316 17.844021
-74.158119 -30.13796 17.979292
-53.406052 -30.023787 17.681263
-52.561165 -29.004511 17.813076
-51.034466 -29.175303 17.985401
-75.173508 -28.4991 17.879585
-49.242638 -28.345848 17.854509
-76.139488 -27.943148 17.806946
-49.405991 -27.752136 17.74872
-76.604225 -27.350702 17.806282
-47.891724 -27.282372 17.92997
-47.449566 -27.27268 17.914
-19.656982 -27.279222 18.058342
-41.182556 -27.063921 17.883066
-40.283398 -27.002432 18.052546
-39.841446 -26.986101 18.035093
-39.388069 -26.870293 18.012789
-42.266563 -26.242306 17.928595
-41.449326 -26.31439 17.909798
-40.746231 -26.373566 17.994413
-39.808125 -26.414577 17.743996
-39.100269 -26.355219 17.920626
-38.567749 -26.394384 17.726294
-38.110424 -26.236156 17.723598
-37.597397 -26.531139 17.727316
-78.720001 -25.870481 17.748182
-43.77602 -25.862408 18.050625
-37.617836 -25.951647 17.944178
-78.142715 -25.727591 17.751884
-77.645821 -25.497681 18.049603
-44.56105 -25.460243 18.006624
-44.061146 -25.505383 17.862316
-42.754456 -25.517529 17.964289
-37.181133 -25.747705 17.820244
-36.731197 -25.783861 17.760647
-79.263458 -25.092985 17.747419
-78.581963 -25.362099 17.852978
-44.194061 -25.041498 17.70912
-43.428192 -25.238947 17.888592
-42.256344 -25.331535 17.68544
-41.79882 -25.320915 17.674244
-36.801197 -25.287228 17.68367
-36.305271 -25.23134 17.683901
-35.854912 -25.222952 17.728354
-45.359535 -24.723301 17.943249
-44.902042 -24.712448 17.931086
-44.444534 -24.701595 17.918928
-35.01128 -23.500378 17.711794
-34.130112 -22.803732 17.662357
-34.124737 -22.431562 18.016718
-81.555321 -21.092646 17.866385
-82.513084 -20.497276 17.777477
-82.552261 -19.846001 18.034937
-26.654974 -16.415598 17.732006
-26.208576 -16.471031 17.83213
-27.525467 -15.654502 17.81514
-27.079535 -15.733534 17.861061
-26.63102 -15.847511 17.663507
-28.028542 -15.113369 17.771755
-27.135649 -15.299661 17.834837
-82.927856 -14.732008 17.855026
-82.375443 -14.825463 17.85187
-29.388226 -14.652164 17.965626
-28.923061 -14.817242 17.676638
-28.467457 -14.79734 17.671606
-84.568207 -12.188198 17.788855
-83.505623 -12.050858 17.85363
-84.247444 -11.95152 17.664572
-81.38797 2.6183593 17.768597
-80.562759 3.3202317 17.887341
-79.405983 3.3959596 18.020617
-79.816467 3.6455534 17.685583
-77.781509 4.0987339 17.850094
-77.835266 5.0606651 18.019381
-77.289017 5.0529556 18.020046
-26.731516 5.4141493 17.752611
-77.711891 6.8527751 17.796867
-26.286381 6.5128551 18.037653
-77.136147 7.0562906 18.045246
-78.380554 7.3229589 17.688896
-77.922791 7.3229589 17.688896
-77.563156 7.5027986 17.685947
-77.066086 7.6539946 17.770348
-25.381165 7.7475271 17.923306
-76.854431 8.2347984 17.954136
-24.943756 8.2052221 17.895134
-76.69529 9.017642 17.658249
-76.242012 8.84795 17.78569
-24.936214 8.6603661 17.639944
-24.276978 8.7550621 17.974567
-24.095411 9.2753105 18.013426
-23.408264 9.3782969 18.046082
-75.356354 9.4679823 17.794291
-22.703077 9.8409204 18.002783
-74.893394 10.294252 17.740953
-74.068115 10.202582 18.023592
-73.366791 10.928521 17.961458
-72.333305 11.103921 18.027735
-69.807495 11.575814 17.959301
-69.20047 11.562863 17.966496
-22.31599 11.237223 17.716587
-70.67791 11.664261 17.669998
-71.377937 12.34311 17.775856
-70.896187 12.458328 17.940207
-21.444023 12.140836 17.761562
-21.002516 12.148029 17.8113
-20.510752 12.328909 17.846626
-67.147324 12.776541 18.022173
-20.06418 12.579679 17.945295
-19.606291 12.883302 17.977417
-71.236023 12.998324 17.633068
-70.614075 13.266022 17.673485
-69.193443 13.264454 17.772318
-68.74633 13.120347 17.737894
-67.640724 13.100059 17.69956
-67.193916 13.228195 17.649899
-66.759056 13.198155 17.732683
-66.914604 13.761697 17.702082
-18.714354 13.760676 18.018219
-66.558853 14.251948 17.895027
-18.260725 14.440968 17.938389
-17.769184 14.843103 18.054792
-17.844795 15.342214 17.722956
-17.350193 15.26809 17.910307
-66.328651 15.592072 17.691872
-65.702194 15.66816 17.754896
-16.975388 15.832999 17.774593
-16.511492 15.797105 18.02401
-15.153006 16.317177 18.025875
-64.67157 16.466742 17.969198
-63.378044 16.652796 17.948132
-16.523184 16.407326 17.638443
-16.066977 16.400175 17.714142
-15.575213 16.520222 17.825293
-14.692914 16.356199 18.059408
-14.604886 16.762934 17.649076
-15.136045 16.866957 17.699547
